-4.322413356646408,19.822965377609126,0.16341353035051812,-0.11564626844991677,0.9928168072645063,0.03053904627078365,0.0028450763773272695
-4.318490681720516,19.83901389923156,0.16544300229974368,-0.11274766259635771,0.9928832978580033,0.03820315781314074,0.003352632812804256
-4.318304654575501,19.847767593775732,0.16458135257799614,-0.12795725519005235,0.9916857203622906,0.012624837839731196,-0.005194838137286821
-4.308078295746277,19.875152516500016,0.17145433358085826,-0.15202377556344843,0.9882452733643707,0.01603899731352836,0.0016738881656436534
-4.321022122129743,19.79745009471216,0.16578268326598014,-0.10515372105226628,0.9942759613637153,0.018324111297497992,0.0047153524023534265
-4.320682419216238,19.79970717496074,0.1660835433372592,-0.11291836310149395,0.993586261918733,0.005923978557923064,0.0008305894791719587
-4.353480170979133,19.63408821795701,0.1616433781977872,0.08918783400222367,0.9958736777316367,0.01637089186776435,-0.0036252126434353073
-4.308070790013817,19.853788140393377,0.17219412498816808,-0.13481590495258783,0.9899115051722204,0.043580937158350916,0.0007652554369240705
-4.308440240616696,19.838094786430002,0.1720143938564522,-0.14230470517569363,0.9896496243094759,0.018227019147446455,0.0032814268193235205
-4.30346687393697,19.866979299601212,0.17490046298638656,-0.1533912941532827,0.9874938399743175,0.035773564876932465,0.006875968786548686
-4.303015858158474,19.861425933921947,0.17434377627510655,-0.15650779139729343,0.9872963062516306,0.027373671480840193,-0.0014131537378982502
-4.301011856600591,19.859996773739496,0.1766743538935249,0.332441337212168,0.942994665722228,0.01387291451134814,-0.007166587400541667
-4.296461824037355,19.88547247298113,0.17606153954204282,-0.1519405150447338,0.9882343838493565,0.017409850112106405,0.0019441154539020867
-4.295333416711271,19.87924360984364,0.1757301377385197,-0.1435425028081183,0.9893904451313843,0.022402975106773637,0.0004513055149501172
-4.292928901071743,19.888899667249024,0.1762543737779986,-0.140056741890906,0.9893241095053142,0.04024173348973619,0.0015869115167093284
-4.302879756609643,19.846125557076697,0.17787591995515872,-0.14151581055740975,0.9893089624174529,0.03522297235641767,0.0006280614308895943
-4.302308073023766,19.839777347742338,0.17786733919286102,-0.12728888447296582,0.9913157721295818,0.033014534102082306,0.00078762604149927
-4.294649865391739,19.867255017871603,0.17680766371070805,-0.1346207173859381,0.9903881743036275,0.03172025930060062,-0.0015335579303050225
-4.29924607352059,19.85681851703606,0.1781142275827967,-0.124364911700345,0.9922306233312113,-0.0002390720707231559,-0.003420775652688539
-4.301394446433019,19.847813508634136,0.17846367765075097,-0.1332297778533942,0.9910489852463442,0.007129332604834682,-0.004572499528276516
-4.294261961232007,19.899023491100163,0.17931234554667883,-0.1247434561235887,0.9917666036143196,0.028937006594498715,0.0008507402712947336
-4.299568636681674,19.863261256198683,0.1793024357137767,-0.1246704599482725,0.9909805761319489,0.04913683510744553,-0.0005878614637572317
-4.2919197432683145,19.892407940983666,0.1821687136509577,-0.1289665893678579,0.9904549680533942,0.048448652237268804,0.004393538615388975
-4.289676247241854,19.879648971899133,0.18080840816987134,-0.13970452904700384,0.9889654172058098,0.049272147215961716,-0.0015177758138804676
-4.286595724562457,19.90041537559769,0.18433074590492543,-0.142124313224867,0.9887134490926829,0.04739546410436162,-0.0002552566221278047
-4.29063720758757,19.888153348268695,0.18360605878795605,-0.12874096667222357,0.9912988060716829,0.027415611746397554,0.0009081925609138409
-4.285382272231264,19.90672382217985,0.1847932354499001,-0.14728737446952903,0.9887882934259612,0.024474882565309226,0.0022627923153162614
-4.291053120718434,19.869861200841672,0.18035975374938365,-0.12105980115401485,0.9915792568872871,0.04587022933076152,0.0033202283881115452
-4.291664512823041,19.86277817361062,0.1799976437816593,-0.11975897331041604,0.9916922803831675,0.04657704101597034,0.005898185336534807
-4.289145078676845,19.877635469115837,0.18141348619246087,-0.12332028191242728,0.9906841905620973,0.05703603514149657,0.009156054537797893
-4.285530941413052,19.90829032672536,0.1857962165567951,-0.14039259551325112,0.9899415514831212,0.017041984353781094,0.0039005822038757493
-4.288835196380166,19.897209519992273,0.18695341060976287,-0.13656006065450443,0.990531922732203,0.01405808143413359,-0.0004798217100028652
-4.284364844282396,19.90051480955447,0.18766867690302785,-0.1352031667994837,0.9898899038363753,0.04284621740641391,-0.0015111664913748002
-4.289557614294577,19.872582308322137,0.18863211285597287,-0.12093162886558723,0.9922062291758048,0.0296167832644218,-0.005018572876201803
-4.282278459219737,19.90159075913032,0.18705004564195393,-0.14509641052943711,0.9884784429002225,0.04305527887608204,0.0019085423567315471
-4.28001111061597,19.900907206040706,0.1890135921435702,-0.13726629253511866,0.98989622680169,0.03535573504271466,-0.0036602045065412285
-4.284146682780719,19.890702973608704,0.19185545753341,-0.14615365291440607,0.9889991744938254,0.022748899813015522,-0.0014933678730747078
-4.283270096627563,19.897380269154954,0.18884269029700057,-0.1513149445609747,0.9883960836856459,0.013293080879419758,0.0005131355771605253
-4.288885645127108,19.88548142175744,0.18898778384151046,-0.1469701194910072,0.9891012033606585,0.008647371942317272,0.0019535725702211322
-4.284054807884898,19.90349983117995,0.1914030302751128,-0.13176609466437175,0.9906472125073004,0.03501710429611815,0.005440501367539356
-4.286144002998502,19.885653910762358,0.19559208294151892,-0.12063925364939147,0.9919160122839381,0.03925488794503459,0.0028015756407811523
-4.279103923892677,19.904868585767723,0.19213921393847877,-0.13688386110544576,0.9901443352127275,0.029112467590854882,0.0054284662458362505
-4.2764792356912436,19.920996455507936,0.19446949113370085,-0.14713602961412783,0.9889983321997413,0.014940591019699837,0.0031727646465182177
-4.275721099772507,19.91973832138646,0.19468986396964683,-0.14378275155396936,0.9893147855390465,0.024031183581250143,0.00229732128438012
-4.27944751900011,19.897551955902365,0.1972920180998972,-0.12587445566961933,0.9919930124256653,0.009772187543536372,-0.00316054728562697
-4.285854215656771,19.86202845526288,0.19725443867456793,-0.11211907804310917,0.9930763425515209,0.03502502402992267,0.0013920829577313335
-4.279706458346778,19.88590387426554,0.19717935749795779,-0.12195397195387138,0.9923443657942833,0.01944111053987362,-0.0013898280442874737
-4.278444968730868,19.892131287211495,0.19778671266551412,-0.12488294866337121,0.9913734994286684,0.03960783219051756,-0.0037487855187077345
-4.277225757660785,19.898799692935334,0.2010308480018816,-0.13189093060421836,0.9901598406947749,0.04675810825245743,0.0013970011821666703
-4.273802916861322,19.911326335798794,0.20300981875026028,-0.13230296390796234,0.9898682784723015,0.05128140204879331,0.00518987662290697
-4.272375315989154,19.911447835709694,0.20349570382625062,-0.14575973795170538,0.9886979501524226,0.03447303120791787,0.006486314514865171
-4.274235751294036,19.899901566843525,0.2030796096856676,-0.14094729338858614,0.9895878919680986,0.02829282560986249,0.007012886394090967
-4.274097362131981,19.897588696436795,0.2033825613813889,-0.14111573335822564,0.9897247041729533,0.022282487628290323,0.005903430665773104
-4.2615230341093495,19.89861174405572,0.2065613059278984,-0.13220522917567953,0.9906662613751689,0.0329733226210139,0.00385952676917927
-4.256654661814672,19.89149133720879,0.20459104203608341,-0.11666932649016223,0.9926947635061424,0.03040041765972048,0.004603191276760504
-4.278851587315203,19.906763000366183,0.21275759053102453,-0.1278100283392128,0.9913140009383159,0.03063255627844492,0.004774379063887415
-4.258090047810485,19.947080445770144,0.20950327839530247,-0.14220405672593456,0.9894562556131933,0.027268216051418107,0.00328159595006095
-4.253265725089308,19.904522247043754,0.2055158009431409,0.24550296732020138,0.9693656542399582,-0.0015500640916608788,-0.007491242769094154
-4.253055343212836,19.90125019042878,0.2053640562588514,-0.1340931376105388,0.989549864980204,0.052987743633972455,0.001547316386850888
-4.255220896357079,19.9373938656078,0.20803843934676283,-0.15339434466818405,0.9872624430013921,0.041633548116177664,0.007049208040566581
-4.266086589021116,19.910830844791498,0.20594288598205998,-0.13005923905400096,0.9906010350565373,0.04193416354941509,0.005975751753626158
-4.264353202771487,19.93720931623676,0.2086513447250715,-0.14286228466273737,0.9893388777768681,0.027853988593811673,0.004807063507560361
-4.270793550567436,19.90481228435321,0.20556824516766342,-0.1245497625894723,0.9915474794118914,0.035888162130940586,0.005743912403086936
-4.26670199850199,19.931614563875204,0.2078406250207409,-0.1362892164825491,0.9894414916289427,0.048568313780386035,0.008479564269187435
-4.263956295782597,19.93541397232709,0.2081607854679479,-0.14813437441194013,0.9883790042676248,0.03364950667397429,0.005555334474096707
-4.262330289537102,19.93874989933673,0.20830425170561553,-0.13627476019729262,0.9900815595463782,0.03353023876755711,0.0065892539465641645
-4.263105428145387,19.932377115758555,0.20815655239706202,-0.13617547085046555,0.9900528502582981,0.03480007458140083,0.006367860174540718
-4.263279419103251,19.932269204766197,0.20789656906723722,-0.1349264472606859,0.989679754823773,0.04742856545862368,0.008908866375853322
-4.263040854866124,19.935824749126454,0.20804329891533163,-0.13539066573680636,0.9899274809223617,0.04059828922050673,0.008045437117973562
-4.263732811398907,19.932297522943983,0.20775488553688357,-0.1320873277772861,0.99014383315078,0.04590657784318878,0.00779189481855514
-4.263767162998292,19.931632783064423,0.2079156437255041,-0.13154333690789485,0.9905899352947295,0.0373048619892991,0.006023112142341844
-4.263851709852157,19.932163543513845,0.2078219463956398,-0.13343904015824987,0.989776602969185,0.0497911146295238,0.007559343911676088
-4.264101085946623,19.929374501328837,0.20763492054668845,-0.13217746482517584,0.9902706119543263,0.04286245190207334,0.007486194556368071
-4.263490272274801,19.932084641289947,0.20773729676504854,-0.13442044769641734,0.9899250288313783,0.04388081148227024,0.007352204971766139
-4.263366264806439,19.933105171235027,0.20790583054071513,-0.1322712190365286,0.9904149445535297,0.03854096332887342,0.009856792850705629
-4.263753247123077,19.930815247631923,0.2076639046532757,-0.13271837622948374,0.9903832400202882,0.03852709580607511,0.006521762543588123
-4.264643195704643,19.926504264974604,0.2075491801158939,-0.13064313348650153,0.9907437852450718,0.03608942117765579,0.007528436103040577
-4.2633649746535225,19.931929237700093,0.20769920956822488,-0.13466283615045857,0.989611771179216,0.049783110288867456,0.007490315975710235
-4.262820813142278,19.93420445713091,0.2079713079435925,-0.13321013843501034,0.990162626153502,0.04200576644996962,0.008279394414808
-4.262247312814048,19.938340757524404,0.20819576988252186,-0.13683641678970423,0.9894740208187152,0.04645858556727503,0.0076522540526987705
-4.262151787107891,19.938328025007777,0.20817297891816788,-0.14299693700218777,0.9889217378641778,0.03916815483276639,0.007178303050370566
-4.263126103215195,19.93275665356354,0.20787989786436067,-0.1371046481457525,0.9895084499231057,0.04477948337960418,0.008375013782544493
-4.264152911232565,19.92806715200498,0.20761617802344653,-0.13152614645547542,0.9900527428312204,0.04924275374649023,0.008461111889878505
-4.263499327013931,19.930781442305573,0.20774984321972062,-0.13306157007659578,0.9900935246475971,0.04412061578747649,0.007924789093887646
-4.263266170878941,19.934258135765162,0.20777639250255256,-0.13482719989475078,0.9897676755432792,0.045961432436923154,0.008313924857763754
-4.263407194249675,19.931345510051393,0.20791312575127638,-0.13340491542118582,0.9903304761029195,0.03757914572543391,0.006040235904120979
-4.2627830113954115,19.935808514331125,0.20811522068727611,-0.1395050501737941,0.9894697520246784,0.0379305010816988,0.007016259111504247
-4.263638257020843,19.93153315266654,0.20777360502750683,-0.12958297309415967,0.9905250710035304,0.0449291199612544,0.007050601182617532
-4.262567004158439,19.937087576902535,0.20804650049063597,-0.14104178997866856,0.9888377910771239,0.04748722042830988,0.007211124275735309
-4.264019421751296,19.92927641642418,0.2080478177223685,-0.13252685506873435,0.9900811337426063,0.0463336308063413,0.005401476543299852
-4.263295114661878,19.93276649445156,0.20785198100132538,-0.13702106966067662,0.9892357106091415,0.05086286443277388,0.007134728191339465
-4.262845373238915,19.934425230581173,0.20797045458143934,-0.1352924578086396,0.9899241293385564,0.04099284168865736,0.008109003865261043
-4.262451651498158,19.937739043879372,0.20802227644667212,-0.1391613452455102,0.9892482463517067,0.04436631547602235,0.007325102771626336
-4.262372822343288,19.936660631726383,0.20795366078289065,-0.13436168529010326,0.9899787675651338,0.04284746519729751,0.007285054727890809
-4.2630668454667955,19.933498589162227,0.20782587189678647,-0.1355604997888724,0.989882047294226,0.041040293961722166,0.008519249563097818
-4.263308315024382,19.931302029405888,0.20795584020070013,-0.13650650411828336,0.9897556526439741,0.04082487941864038,0.009113265779014829
-4.262556420417259,19.936694826383956,0.20781606972260558,-0.13800359804799617,0.9891480868885462,0.049438944051148105,0.009841744847514261
-4.263432712245984,19.932351863524552,0.20770920131063564,-0.13687050155133962,0.9893443566174872,0.048860290888147535,0.008768227217637852
-4.262938616696928,19.93528096016421,0.2080016341814188,-0.13804342443208878,0.9897716136780117,0.03520354249671135,0.007541639342270999
-4.263203728427435,19.932749178975804,0.20776006674833403,-0.13616429534241772,0.9897112141915644,0.04324307423620421,0.007812407309170058
-4.262311020938403,19.939646344209926,0.20823470098069688,-0.14119412368709872,0.9887385281502837,0.04894354773149944,0.008054285995466117
-4.264010873929282,19.9282233623538,0.20767400967830366,-0.13375174232184459,0.9903638574983392,0.0352935025453787,0.006653560322088796
-4.262737136554481,19.936889104516574,0.2078299355769816,-0.13717977867872988,0.9892336082230048,0.050290735314017926,0.008331784042189885
-4.262797046246275,19.935896930070996,0.20791872256457727,-0.1370632316359205,0.9890425452410362,0.054312770135252444,0.0076574954708519445
-4.263251415399294,19.93278342516706,0.20786881238265587,-0.13446176872050547,0.9900123371951401,0.04189577722558729,0.006352070893317527
-4.263085802129835,19.935268278423024,0.20816757662301988,-0.13451928642680488,0.9901425166151926,0.03823657958517418,0.0077667465378100774
-4.263683437409433,19.93091435533447,0.20783884023168794,-0.13908391289154592,0.9894826012746447,0.03914172787828525,0.0069117355448391985
-4.26270603861664,19.936668655393095,0.2080859806836807,-0.13993386487141377,0.988782319419293,0.05145152225089355,0.008987720735445973
-4.262682219096843,19.93593253871121,0.2078423063165255,-0.13499485633918346,0.9894956188303432,0.050897825068336455,0.00917717172292456
-4.263503003750817,19.931870925415843,0.20783289424640713,-0.13710445813507344,0.9897202196668746,0.04011160681366163,0.0068784693695289984
-4.262348716920988,19.937608157970566,0.20811387385467897,-0.13683132886301586,0.9896145163350394,0.043527473444179385,0.006756889529454662
-4.263275847663453,19.93363573885622,0.20783072722275686,-0.13738999232742272,0.9896387566283265,0.0408277054704297,0.008498226487348898
-4.263948706226534,19.929246223261046,0.2076208904778191,-0.13791236302008292,0.9895270740544513,0.04182667405535386,0.008177968997262704
-4.26267334274494,19.93624877838036,0.20810510106991273,-0.13812610526756544,0.989494613533345,0.0420744143429348,0.0071646695533863144
-4.262948451017545,19.93430866736302,0.207772280505495,-0.13400303080827536,0.9899315711804509,0.04491994944302703,0.007801939274072583
-4.263715625405702,19.92862894298603,0.20795033177352548,-0.13004427297013305,0.9907304972564347,0.03899367860608806,0.004589324836249655
-4.262479587518092,19.938943666853763,0.20820529016698225,-0.13772799198240807,0.9892483166259325,0.04844836015222588,0.008457226248181422
-4.26278953477314,19.93486284615704,0.20812719602423854,-0.13530611363178005,0.989832310356574,0.0434097413640703,0.0063124751670802105
-4.263061571899442,19.934676198167146,0.20790257062856096,-0.14085857114065908,0.9893487000248469,0.035606349380241126,0.008955477607005812
-4.262211665235775,19.9381004107538,0.20792744573842561,-0.13779338127439145,0.9892152194771953,0.0489221235024851,0.008535775516126137
-4.263553236338201,19.92966526764475,0.2077246033560374,-0.13662100959962503,0.9894811649332423,0.04709758065545206,0.006598626731045259
-4.263493785976609,19.930992236511713,0.20763656201257194,-0.13421549242198008,0.9899599769879032,0.04365919579479838,0.007701959399218247
-4.263268295719113,19.932461293069387,0.207722527227202,-0.13721022128779842,0.9897192992026188,0.03917778957134195,0.009703853066383035
-4.26364672653345,19.92946882734037,0.20782213507331349,-0.13591802430820768,0.9896760313322526,0.0450829127507395,0.005930822245240538
-4.262172000205085,19.93830345130475,0.20803527208805658,-0.13539264002078893,0.9896699130031249,0.04626090885099811,0.009067780151048418
-4.263309817616837,19.933111558797442,0.2078621385703186,-0.13341238181493578,0.9897534748345018,0.05023267690753281,0.008116255429608341
-4.263229869945311,19.93361902964111,0.20805941912171624,-0.1373797721674857,0.9897476502913976,0.03850083463422035,0.006638725354748578
-4.263096719114009,19.93443028251274,0.20785170342003687,-0.13424855068058955,0.9896652260220862,0.0497504144481203,0.008059981703101769
-4.263078881544217,19.934835328571943,0.20786714984022578,-0.13873281988962294,0.9889536030376119,0.05125148696418951,0.009862089451955033
-4.263232000165727,19.933287911423076,0.20795921956432925,-0.13682289308306042,0.9894924753456327,0.046143869894845035,0.007408132955147558
-4.262817809997734,19.935847616738542,0.20805798018968344,-0.13793969751913496,0.9892842509381531,0.04707600334243774,0.008553397182945743
-4.262853991413859,19.935912048812042,0.2080686876111247,-0.14047542346800462,0.9888244176898373,0.04891693443899097,0.010002994898038341
-4.263616755401168,19.932067495106516,0.20783369871159416,-0.1402223841563583,0.9892420557884498,0.040634050843414204,0.00931192531128395
-4.264026061181841,19.929085432708195,0.20757775698878686,-0.13404722421777665,0.9898822287096151,0.04579092063218186,0.008228399118386995
-4.263321442093062,19.931772133743504,0.20807320758393535,-0.1387969612457836,0.9892607822220302,0.045135492164564514,0.00782915407026017
-4.263081800501238,19.933201197020836,0.2078994748076264,-0.13176228238711135,0.9902736234343159,0.04400099893411166,0.007795111494362989
-4.2626444815618605,19.935255211431997,0.20785788816108408,-0.1364582422635786,0.9896992962582597,0.04266207583657167,0.0073755263916667185
-4.262965464100863,19.935533921064643,0.20781955448669207,-0.13754900903664363,0.9893056501272739,0.04762056508765858,0.00932107933778387
-4.263519101718707,19.930254672107885,0.2075829102829688,-0.13101383441157666,0.9902198770013724,0.04719996146102542,0.008493175038894542
-4.263236695404024,19.932455775029368,0.20792477393876507,-0.13482916565152436,0.9898577567537923,0.04406614377528383,0.007803361893407523
-4.262559245164444,19.937307361586676,0.20819634264923634,-0.1384309050425152,0.9895548537479805,0.03972122808945588,0.0063482274682220025
-4.263718710012849,19.930140394644418,0.20755160914984125,-0.13943621231606107,0.9891615431164239,0.04504164969018947,0.009393301212639413
-4.262613560243446,19.93669711359626,0.20791422321964972,-0.14079041702184758,0.9889473047163374,0.045640778807312994,0.00884343140232385
-4.262414203953861,19.937597034746755,0.20795076861633294,-0.13882130803745646,0.9891174561325795,0.047650654824009694,0.010233157060632232
-4.262357671339237,19.937913381652567,0.20807749702826675,-0.13905029380958464,0.9891078506936455,0.04749570614937204,0.008650629170060995
-4.2620349312842585,19.940536484448582,0.20815505499296183,-0.13829409915258287,0.9888286502771034,0.05503533693199838,0.00798462394346874
-4.2631684653206054,19.933596008429245,0.20810893584854606,-0.13849996106189633,0.9891044544750984,0.049474977783345905,0.006508878298786094
-4.262908368994054,19.934018028989996,0.20784501910803482,-0.13664971265086517,0.9893354193668827,0.05006694594169404,0.005965311614803187
-4.263177471572666,19.93465574553882,0.20799678970368574,-0.14334628526406662,0.9886615753605391,0.04401445367240635,0.007928415638016016
-4.263719938385172,19.929374489181928,0.20759322238874814,-0.1336867800029602,0.989944031630695,0.045599104876068046,0.007705889027666323
-4.263480922413379,19.930883263955984,0.20770940703060436,-0.1345653576247662,0.9898331064309911,0.04559033796099338,0.006641312001018043
-4.262961500828958,19.934657183304367,0.20790302531176943,-0.13502541266893983,0.9897773448698026,0.04529338316439017,0.007579904853654285
-4.263780072674051,19.93036251967659,0.20777079468028356,-0.13469675078405824,0.9894723477666928,0.052275335270317615,0.008279351161861478
-4.263874876429066,19.931411731406275,0.20775877619376396,-0.1397545171742272,0.9892603137610647,0.042150883620094476,0.007483953287096343
-4.263600423324669,19.931462706049587,0.20777336735915314,-0.1371766962823433,0.9894943710554396,0.04493073300127309,0.008041944953177296
-4.263255343254306,19.934188089293635,0.20773792845380487,-0.13635233100331734,0.9892716402851113,0.05186687699817717,0.0077130167913003035
-4.263507198395001,19.932279924317996,0.20786319205149073,-0.1326613049671822,0.9902007507168236,0.042933465865435845,0.0077568648966189705
-4.262704245429026,19.937209341327254,0.2079855039566694,-0.137252133540221,0.9895207085628683,0.04424885196265173,0.00725660140031256
-4.2635450623346,19.931531635848994,0.20779437945950466,-0.13977645538904546,0.9890673786391885,0.046234060211568034,0.008406825026827575
-4.262726824431635,19.93617537292295,0.20776235239593652,-0.13966871690722818,0.9887788062995548,0.05227462910829688,0.008745563555631043
-4.26338255037635,19.933343245543757,0.20786522984628347,-0.14268555772062227,0.9884606001671512,0.0501800773569454,0.0082724465305397
-4.262003546047229,19.94041669983236,0.20818758450915756,-0.13810188938458728,0.9891555917754161,0.04941925457858823,0.007537949637036312
-4.26398276146297,19.92783296542149,0.2076612611437009,-0.13314841156389107,0.990073853066371,0.04459631033109251,0.006036147544239619
-4.26369943077156,19.93115865597556,0.20764549293450485,-0.1342394317491608,0.9899944470028966,0.0427619323692146,0.007885873898422113
-4.263212867137741,19.933454865044045,0.20793506957799024,-0.13899421288944613,0.9895549724913466,0.037516229659070484,0.007355114755134515
-4.263296105053454,19.93367094581516,0.20774901516048958,-0.13708828467776354,0.9895531660721428,0.04404122901874435,0.007190540120512519
-4.262847968436632,19.936629100496273,0.20803568452258683,-0.13701182087118302,0.9894339550202929,0.04683230931450917,0.007412448902604349
-4.263494100910715,19.934108499534005,0.20772364109241018,-0.1392264106451503,0.9889985860347522,0.04935149636551308,0.007888802609613629
-4.263356841710033,19.932710893454107,0.2080098082222541,-0.13829184802438574,0.9891587984351716,0.04887719477695225,0.007159335096469933
-4.263219986489402,19.934178915449603,0.20783526353716555,-0.13689108065167552,0.9894203762260421,0.04747859878362315,0.007343963798781496
-4.262357678679987,19.939008238797143,0.20807097102178745,-0.1347941789376783,0.9896684674050109,0.04823958562369565,0.007732808518762147
-4.263385195464451,19.93320780462644,0.20799517991427155,-0.1383365258578202,0.9895004536624035,0.04144873450239662,0.0058189538265873645
-4.263088418738455,19.935297815600634,0.2080250151157003,-0.1403783496827965,0.9891175242205671,0.04345215356492754,0.0072355076311299196
-4.263218580153895,19.93391809776986,0.2079408425345567,-0.1394555774158909,0.989103248112656,0.046854818281031434,0.005615381059670261
-4.263185992352386,19.934320061638775,0.20815907673345332,-0.1372182324421926,0.9895549653764075,0.04356227936147423,0.007379363195446407
-4.264036307362856,19.929225392019614,0.2076407581217245,-0.13395640540480022,0.9900322878005737,0.04289289875141854,0.007207620972787003
-4.263744857139724,19.931720198750725,0.2077832648651962,-0.139317097300181,0.9892573912490075,0.043662917423545694,0.0073559432518230435
-4.264182697790157,19.92760018729023,0.20768514152211004,-0.1341768039424247,0.9900076457860689,0.042645540284241244,0.007924926673897607
-4.263989087363079,19.929887426624376,0.20773927458601518,-0.13562828735889088,0.9894880153245226,0.04948460478089569,0.008349196782355803
-4.262573868319157,19.939332081359264,0.20796956766141061,-0.14099667368537344,0.9886499654315178,0.0507517369054127,0.010744536425670644
-4.263167237667918,19.93417611264741,0.2079441065233002,-0.1378347969342186,0.9893328528068256,0.04651050687743099,0.007671235963981027
-4.263680909165043,19.93425609562469,0.20804770217034185,-0.14134920460935307,0.9888881804347732,0.04563513357387556,0.006164700836265176
-4.262172780779497,19.940448629965076,0.20837538497039787,-0.14037602833281254,0.989136800933601,0.042987187343733316,0.00742033911772668
-4.263495963130417,19.932845641335245,0.20783879951561704,-0.13737121220827925,0.9893990032381592,0.04663615160176869,0.006620559760415409
-4.264886818616562,19.924731127064515,0.20760189642229854,-0.13003014311115568,0.9903861748437167,0.04663760927698401,0.0072332538909621776
-4.26416351010864,19.928722374222236,0.20763548359086503,-0.13137165614912652,0.9901033797310129,0.048821337150265355,0.0072981124081182
-4.26383622205189,19.93040214494282,0.20786657302477732,-0.1332412423375662,0.9899069073428687,0.04771824367278062,0.007352234762573316
-4.264231289593955,19.928702746543447,0.20777591868550774,-0.13766800318739764,0.989553091651381,0.04201628528122113,0.00817505185030028
-4.26272358919597,19.938077903704098,0.20844754191629922,-0.14166108882300094,0.9890820342620146,0.04002657408614624,0.006836576666950563
-4.264251966478632,19.928629076868862,0.20787213549949987,-0.13783953052925632,0.9892231355963722,0.0490270774801478,0.00584786269601119
-4.263407945957526,19.9333784884645,0.20792846348147345,-0.14112271122729186,0.9885694083702964,0.05251036031129211,0.007587309815692531
-4.264395908852383,19.927044245044762,0.2075465109551583,-0.1331060867862131,0.9901856997454099,0.04192708087731253,0.007561056094274459
-4.263643351069364,19.932558219537775,0.20776840900795954,-0.13646930158783716,0.9895901051987215,0.045000413058173976,0.007906721286668084
-4.263614810396401,19.933414935114957,0.20779221883638793,-0.14096084662760705,0.9889494824272728,0.045209279198389754,0.008067341521185089
-4.26383208668754,19.930295853140088,0.20764083202651296,-0.1411930789440194,0.9886348147840403,0.05108815903039517,0.007464413045873428
-4.263308408732131,19.93423590094484,0.20815255868587382,-0.13721235161057632,0.9895949649001774,0.04287806380084856,0.006003969886909153
-4.26423481944169,19.937266117373408,0.20811155619666047,-0.14116852377446484,0.9884511311712785,0.05470275018137533,0.00658925672229196
-4.271884742438383,19.932538360642695,0.20801404860456527,-0.13440745464146084,0.9899574697924711,0.04315511633746647,0.0075153225341363025
-4.2824508535509365,19.88910078197213,0.20474155898540147,-0.11374294641704745,0.9932069717407139,0.024302759349395433,0.0034393769806227346
-4.275237613743631,19.946282096302898,0.20922258134016253,-0.14772761637858892,0.9883296201425285,0.03664156417123553,0.006205568717751818
-4.284295892402657,19.925087939518022,0.20719859458846965,-0.13389459719452582,0.9899601861668166,0.04392322204913382,0.011037083468913259
-4.282451958490756,19.938747807023237,0.20836903203916796,-0.15284742213060015,0.9876862556720963,0.03223357738666548,0.008632635363681246
-4.283981927988026,19.920378818230603,0.206960253105579,-0.12646952981777435,0.9909044356940333,0.044313945578067525,0.012252819139469517
-4.281018038880998,19.93661237508173,0.20833252146857345,-0.13050575983896612,0.9908359618812226,0.03369882297936767,0.00875971583851832
-4.2806838934429425,19.947853936578376,0.20935430872220204,-0.14832396354541844,0.9880157031088923,0.04214010623265485,0.007013108805589403
-4.276370089285977,19.949868852453555,0.21014832283792273,-0.14871175267102715,0.9886168100603518,0.021821739582508173,0.006740116111616841
-4.270976105802799,19.951729990460397,0.21035788887864945,-0.13453699821898463,0.9905486010101823,0.023847968117090675,0.012022460799764255
-4.268861198825392,19.953277868297743,0.21065687321102677,-0.12673558071933552,0.9913677424584114,0.03215475691807959,0.009703782777052432
-4.267333250423876,19.949030139896067,0.21049175148588242,-0.12685265382099548,0.990844378276794,0.04505560867395568,0.010286611826251653
-4.265508447237517,19.942131254246213,0.2102509360277421,-0.12938734978752564,0.9912046630618859,0.024965300115259742,0.012205057537308573
-4.264191032673346,19.940599390489755,0.21019314138946163,-0.14132915632244486,0.9894762329301817,0.029119428350822932,0.010719744959829205
-4.261818147530545,19.941579604254496,0.21041010258518034,-0.11536715269903089,0.9926093365260544,0.03615383307800767,0.010489302798193118
-4.256498528049948,19.94236687660233,0.21036208901659406,-0.12939911891009415,0.9912016423922921,0.026958663032858845,0.006957199982355394
-4.253453863089971,19.938522792515208,0.2103063290241307,-0.12740220258788468,0.9914008197651814,0.02901611588010198,0.0071525075263379504
-4.24749922456053,19.943569294543426,0.20902939339948712,-0.12123264444729179,0.9915449303934155,0.0460201179928071,0.004842073043828056
-4.247554774398298,19.943550636553773,0.210284235679653,-0.12573689775064134,0.9919767731825415,0.012203089422897086,0.004837211896734416
-4.2487937126873465,19.940257141540254,0.21051002120246573,-0.11323452648279944,0.9934614388771434,0.013614404558356849,0.005192250465207693
-4.24898830394331,19.941847658153623,0.21027142746165126,-0.1254349072141501,0.9918955785497215,0.019895347345223784,0.0036633945601732684
-4.24705483459711,19.945746563161467,0.21056639923078932,-0.11252601339342996,0.9934435836872748,0.020087755622369002,0.0020553380310660762
-4.24721793777593,19.936444806393204,0.21076546690886214,-0.11443636350528577,0.9928610429334971,0.03359847207429764,0.0015526773544504067
-4.243823511609479,19.93853105791861,0.21015025981365437,-0.12191900698641144,0.9923754057994808,0.01793305265705229,0.0022837079852937596
-4.237716027650805,19.943898941915354,0.2104262125207027,-0.1107922401493875,0.9934091046749872,0.02932324046396743,0.0018915179653062693
-4.236459996303363,19.942423880563275,0.21045360806790067,-0.132955161436106,0.9909158881754577,0.02005148707966815,0.002562318254296782
-4.238368745633671,19.941177636350762,0.21109434021700565,-0.1312552630272669,0.9913482128197663,-0.0004768047926798374,0.000741298784750714
-4.2398181206052055,19.934153813171747,0.21162320679445856,-0.12038730435112488,0.9926783943823152,0.009530552096565252,0.002381355570456966
-4.240952464577455,19.92616456611112,0.21221890870662097,-0.10455999496311419,0.9938626567526827,0.0358477814701322,0.0043776168724887635
-4.241970938995734,19.922032586047482,0.21246754820307678,-0.12008418144614602,0.9922250649255535,0.032092037047267145,0.006269853112094118
-4.241229102417073,19.92049648237288,0.21254985524716588,0.23603419725307603,0.9717123647967167,0.00792817618340787,0.00028609556672934693
-4.239189971380664,19.92840570694925,0.2131619300913356,-0.10940323033095822,0.9919005406809388,0.06436570355255332,0.0046159285303641415
-4.2393988499285316,19.91586759151937,0.21251944366054742,-0.1178037431200104,0.9927043050523588,0.02530169385390654,0.004501680303057657
-4.237906030599255,19.915570398553808,0.21265510275821028,-0.12477067721909708,0.9916991780151299,0.030527315777117318,0.005753383512985943
-4.235657359050361,19.93112740947448,0.21208898464657852,-0.13009321462950837,0.9914886968087483,0.005091112532727199,1.3454692024675069e-05
-4.237432861148303,19.926938800244475,0.2126598808678413,-0.11984801194677247,0.9917683625144835,0.04502572483714631,-0.002157139456621435
-4.2391510971547754,19.922222823463606,0.21254935041587047,-0.10805919279542908,0.9935780792538081,0.03354711867319736,-0.000634119420808816
-4.242652516514449,19.92148846776747,0.21271987603725043,-0.10227337560454497,0.994280455708601,0.03075047462811549,0.0009697156765087922
-4.247711661412435,19.917657115493295,0.21286269796182594,-0.10603596558762593,0.9932643713047903,0.046704014262441335,0.0009988744529703009
-4.250928574478707,19.923694575316695,0.2123061428827035,-0.1039878990859191,0.9945431747606919,0.008332025819951083,-0.000983730835012961
-4.247578838620702,19.94842225593174,0.21575197912891958,-0.11772208915019788,0.9911376191521836,0.06021560768697363,0.012720464548988647
-4.245089530156364,19.95911472246075,0.21683955162999047,-0.12088609835430335,0.9911914227817341,0.05335609202670057,0.008901801628523085
-4.246746502279117,19.94935099321999,0.2163435106783548,-0.12405587963595083,0.9904008568853283,0.060568713532775174,0.0069074126518374485
-4.25354196722966,19.953882137849064,0.21671464698280998,-0.11747863038357065,0.9915915536101216,0.0534101598163682,0.009608175719426801
-4.265513917734603,19.956355429252778,0.21791426711638737,-0.1438357971484825,0.989411557501966,0.019276512025802973,0.0021093658557029228
-4.2678078020151515,19.944216187969683,0.21477906426607504,-0.1328729251544286,0.9909000812447485,0.01997569721078773,0.007923778833307237
-4.258138452287027,19.94756633799181,0.21315937825924447,-0.12486776308611919,0.9920424990058563,0.014389945610229408,0.007256126612627098
-4.252225986408434,19.951568811182767,0.2121956246641877,-0.12480354728035274,0.9921425822166182,0.007337175176506565,0.004830838354865719
-4.254479593607835,19.952290538413344,0.21259079303229994,-0.12016113574226352,0.9924709089275654,0.023578057248798797,0.002621374828927118
-4.256920818676857,19.952144647839464,0.21287804379440037,-0.1280081781469136,0.9917243433661864,0.005146189517397966,0.008381517515655145
-4.256409880474376,19.95613220872646,0.21401169534102704,-0.12773184667137666,0.9911353942274004,0.03559452186823825,0.00826048839880832
-4.25386100199683,19.961712715655253,0.21528400451099752,-0.13416445858215814,0.9902620115873854,0.03602945866493137,0.009106292800797458
-4.250854173326135,19.970806424362152,0.21641695089202526,-0.12374934836171458,0.9919161048870865,0.02737464369535887,0.006258476510592241
-4.254345091994024,19.96056737383023,0.21746751157422042,-0.11809741277382588,0.9927924961122928,0.020029265426063335,0.003858663725129956
-4.259829043421656,19.948119057705338,0.21845868110009825,-0.11978709448182329,0.992762240944932,0.008448145003443625,0.0016774372119000155
